# 3D point list with one line of data per point:
#   POINT3D_ID, X, Y, Z, R, G, B, ERROR, TRACK[] as (IMAGE_ID, POINT2D_IDX)
# Number of points: 399, mean track length: 3.6425957038281531
49385 -1.2371550442750701 1.6595854471054061 3.5574960748481477 167 128 102 1.2574488842877434 58 2633 55 3159 53 4582
27409 0.92007389250535976 3.1271753004977985 0.59744398585024505 175 126 85 0.16333512986643012 67 3808 26 2302
27410 0.078223830744278564 1.554431210317585 3.5771350576551715 185 146 100 1.55656318748648 26 2304 52 1626
27411 -0.88574856931980128 1.0108313697120896 1.4593543154033191 118 60 48 0.5898008986204224 67 4518 26 2306 19 3751 10 5265
61677 -0.12233918774766421 1.8348797866827327 3.165107193244983 188 145 66 1.0274905837955532 46 8670 11 8084 81 1654
27412 -0.04461008501157239 1.3402848810586827 4.1231995563324757 150 104 55 0.48442540233548109 67 6205 26 2307
73034 1.4632582693876324 2.5394432364378758 1.7017951719596727 191 132 33 0.75251778284211168 13 2996 9 589 3 1400 5 2349
27413 -0.35452926933183976 1.6292239943754239 1.3507922347754677 44 22 24 0.653866580223049 67 4578 26 2308
55387 -0.091450660692534297 2.2948994629799406 2.3492268756396602 143 99 42 1.6186442519313791 58 8973 29 6906
27414 -0.39224552785067318 1.6286128296065303 1.4276234004770287 66 46 47 0.74065814679701258 67 2387 26 2312 10 2541
27415 0.60109014703270813 3.1313423041078865 0.55154353945881851 151 99 51 0.80276659195344557 67 3759 26 2323 38 2487 10 4217
27417 0.5889344377517145 3.1289223331677234 0.5835725561529056 152 102 53 0.8666285046619423 67 3088 26 2326 38 6196 52 3930
27418 0.47824228279895359 3.0642567663814044 0.70215236161839312 156 106 54 1.5267047562168987 48 2175 26 2333 19 3236 25 3689 49 2674 63 3142 67 3780 38 4248 52 3945
27419 -0.25467252977677701 1.718973434076825 3.3867193101175257 141 92 49 0.55104722109305859 67 3798 26 2339
27420 0.42291082302136535 3.1122884355784595 0.61308761815566215 158 106 59 0.40415146539755203 67 2940 26 2346 38 4250
27422 -0.4270931551693059 0.17312860540300726 0.80894270868343288 176 128 82 0.37834333017740829 22 2651 26 2351
27424 0.28015089666888537 3.0848528975300806 0.66804126155811072 179 140 95 1.0252755610314563 67 2463 26 2363 19 2938 63 3221 10 5500 38 6256
27425 0.19031052127613951 3.0500278411274029 0.72836619014269777 181 137 98 0.796517619321091 67 2924 26 2378 38 5385
28103 -0.2248228298626995 -0.020006025851210755 0.32262860487250888 68 32 18 0.74690061709424937 26 3803 19 4597
27430 0.075704317777175525 2.9207006226198962 1.003078621568559 150 99 54 0.84493991580893069 67 2931 26 2388 10 4321 38 4318 52 2505
56511 -1.7178270504687154 1.8298108066086696 3.2130021192196083 137 116 61 1.0876144967644887 29 1943 61 2993 4 1565
28096 -1.9286435626940832 2.7865080554150268 1.3370597875302186 202 160 88 0.53253610890270608 25 3105 19 4282
38356 -7.4924972765045705 -11.387201588488107 24.289235023534857 41 51 24 0.25400997391328883 65 449 43 205
27434 -0.65123310230972797 1.9457522052399896 1.6528304106019265 62 37 38 1.1470920365736998 67 2454 26 2402 19 3287 52 4034 10 4329
27437 -0.67352819962922661 1.9523120547244297 1.6662112803647293 148 123 126 0.77736424421545314 67 2904 26 2408
28104 1.5510077943504106 1.4301450316216386 3.8938018332156337 218 162 80 0.92369004841315583 25 7968 19 4605 10 6295
27438 -0.06529468213714304 2.9197318965235128 1.0170901112453028 178 135 98 0.44275230076360961 67 2965 26 2410 38 5434
27439 -0.20984180645632047 2.6650894539317234 1.4990616895892335 125 73 36 0.76144488992955106 67 2967 26 2415 19 2942 25 5314
27441 -0.580961018299053 2.1794192478924086 1.6566985210327039 106 60 47 1.537810530268209 67 4742 26 2420 10 4373
27443 -0.24766763164739336 2.8692539377065049 1.1110255087193206 152 98 52 0.7571985044789592 67 2996 26 2432 10 4383
28112 0.18602131037569791 3.0087366081187144 0.82990717374439127 208 145 48 1.1858233996394247 25 6939 63 4066 19 4753
27446 -0.18380294557498048 3.0493866332491826 0.74310904393539834 185 144 100 0.059347592390228653 48 1638 26 2439 25 2628
74100 1.9220211638500968 3.365379805595504 0.043374320109395334 164 145 112 1.4738118237619258 9 339 90 425 24 379
27447 -0.1160038819546733 3.2255338044082076 0.4092070577074835 160 107 62 0.76700429238077794 67 3007 26 2441 10 5611
61585 -1.1196614533710663 1.6638847532150083 3.5247498084091267 110 82 41 0.32615289693233573 61 6723 11 5525
27448 -0.50877298072761334 2.5590055016263507 1.7444619392601717 0 0 0 0.26274662115260328 36 2096 67 2540
75134 -4.9243423947692344 4.3417161182311208 -5.0435083242378038 15 16 10 2.4568817247277899 5 4265 3 974
27449 -0.72710898690843262 2.041052039813549 2.813543306127837 171 128 93 1.5387766636201643 67 3805 26 2452 19 3253
55375 0.59833229725608228 2.9810917146861233 0.86021752527100726 160 129 109 0.89390207390572696 46 8399 29 6855 76 7827 55 8020 40 5836 61 9217
27450 -0.73250591044647817 2.0482140060477811 2.8053421172912123 150 97 57 1.3227264140146535 67 4833 26 2454
27451 -0.85342923843161789 2.0429902639038127 2.1331896241275308 154 104 63 2.0137813138145351 22 721 26 2465
28120 -0.15875542137394125 3.0335776791499991 0.77446536352011774 189 130 37 1.4966661247606639 25 7162 36 2523 48 3023 49 3646 19 4865
55363 0.42888411665615189 3.037710683553287 0.77078537974544159 161 137 113 1.4937400931459661 29 6759 40 4466 76 4927
29145 33.354580550065727 -17.256437563573279 18.093778596141437 48 35 26 1.8357156320721324 31 1626 21 1317 70 1441 41 1055
27455 -0.91665012540911317 1.885708155446979 3.0822205797081699 145 102 59 1.9410073408239505 26 2475 67 3047 49 5162 52 3297 77 2376 38 4781
27457 -0.55713218906558104 2.7001457902959678 1.4483044826980145 166 120 84 0.28675634667178751 67 4868 19 4877
27458 -0.44106846849137965 2.9292773803096308 0.9907604835903977 153 102 56 0.86327641252485043 67 3049 26 2480 38 5509 10 5707
27459 -0.84597037067264624 2.1071531731437401 2.5688341474177396 177 133 94 0.7484602335686974 67 3050 26 2485
55358 0.16387599646658799 2.4659557964608503 1.361173873676915 103 82 68 1.5639318489000775 29 6715 86 8063
27461 -0.50047421333136421 2.8832308035970993 1.0992559936384065 175 132 97 0.77085536122331622 67 3063 26 2498 10 5735 52 4102 38 4412 23 3004
27462 -0.46994299599118994 3.0732059682130366 0.051606689754426754 155 93 42 0.83275775363291538 67 7782 26 2499
40159 0.76924941039779937 1.9445099609802698 -0.0536258280320304 205 156 80 0.53987883950868409 43 2166 12 3504
27464 -1.0531839650160608 1.7671666353447737 3.3222878366414235 169 130 91 1.5198785675523245 67 4884 26 2503 10 6730 77 2361
27465 -0.91313040537711621 2.0694777181923869 2.7642688079200171 150 98 58 1.2512611958297353 67 3071 26 2505
27466 -0.5485516134813786 2.8625788741965441 1.1386595457087119 174 125 84 0.54121307129765883 67 4889 26 2510 10 5750 52 5399 38 5541 23 3001
75023 -1.2687029332981477 2.6149162111164514 1.6403959276010316 140 108 69 1.0962182485839302 24 4172 78 4343 97 3925
27468 -0.55391826962253154 3.0295107206086573 0.78782696649561168 181 139 97 1.2512938908855813 67 4028 26 2522 10 8859 38 4404
55354 0.22596921180581594 2.0485759345753571 1.511278327219495 93 54 34 1.0151039968301334 29 6695 60 1366
27471 -0.58999387498914746 3.0392294257486787 0.78902625487888911 178 136 94 0.50756617707252094 67 3103 26 2528 10 5754 38 4409 52 4110 23 3013
27472 -0.68118890034514279 2.8622451913256355 1.1417186800650245 177 132 94 1.3330631383074865 67 4942 26 2530 10 5799 52 4165 45 5887 27 1643
56332 -0.7965812336768785 4.7765117795610985 2.1528755834128623 149 127 103 0.54285429526313234 29 7039 61 1176
27473 -0.69945457383270626 2.8444154615584876 1.176541595593781 178 136 98 0.75831020896170565 67 3108 26 2531 10 4492 52 2614 38 4457 27 1647 23 2275 97 2491
27474 -0.69853974591458257 2.8491916105672837 1.1645631245106691 150 94 56 0.65415477800384181 67 4947 26 2533 10 8997 38 5582
27477 -0.75267067372335206 2.8567315107108042 1.1564339767622569 141 90 45 0.73616257503417182 67 5981 26 2548 52 6693 23 3075 45 6818
27478 -0.92048212113964778 2.5069580337272472 1.8498159294527334 134 77 34 0.87896228143746646 67 2617 26 2552 10 3342 38 3084 52 2697
27479 -0.76126041489600904 2.8682878111912018 1.1282266812988295 148 99 59 0.75471303090402786 67 3144 26 2553
27480 1.5295006088108087 2.8579193357343375 1.0675166439848931 164 112 55 0.46653571457457005 67 4554 26 2555 10 5274
39151 -0.29554733763137275 2.9490106022343667 0.96333419707085788 121 78 43 1.4103472399584296 43 2334 17 2377 12 6672
27482 -0.9172790786577486 2.6512058577061866 1.5621238566235509 154 99 60 1.1267665593059033 67 3171 26 2574 38 4559 23 2940 97 2772
27483 -1.2531542030827234 1.9378757568019958 2.9773606459859803 142 100 60 1.4833193334429422 67 3168 26 2578 10 3195
27485 -0.62052017070692977 3.3459667829848692 0.19665793212137811 157 96 42 1.8309456275393938 67 2651 26 2585 10 5760
27486 1.087437165305023 1.0842799829444181 1.2213931794428661 128 86 84 2.7171606506984163 48 2629 26 2593
27487 0.87081959959912547 1.7291346651744239 3.3809370357289117 166 111 72 1.0619337449827078 67 4565 26 2597
27489 -0.23028538699382028 0.62332820797034139 0.49936938826565036 110 54 53 1.3555368602006459 26 2613 19 4743 10 4691
27493 6.1888801155645963 3.657975574887427 4.5595135764367871 190 143 99 1.6475707500682584 22 3337 26 2646
27494 15.957004845100546 5.2033369221864456 -2.1359883848559007 201 149 165 1.5822852597542756 67 2145 26 2661 10 1939
27495 15.997572309721626 5.210389442111893 -1.5105544505017501 146 212 210 1.0222356035129718 67 3483 88 1150 77 2889
27496 0.3218023402589007 0.9661834745037492 1.3371973628297742 90 56 57 0.20949545756982291 22 3391 26 2669
27498 3.7281070241002383 3.814082676501076 0.67037784685435298 178 120 65 1.7546906490998757 50 770 26 2685
27499 -0.40010817173887869 0.74730157568877698 0.91511633914932511 186 133 87 1.605880060615712 22 2555 26 2686
27500 -0.30088927621265216 0.86263085700757836 0.77664305620827712 122 76 80 1.1017089097898332 67 3368 26 2687
27501 -0.36091364649957902 1.1556583599679191 -0.29500617226110609 187 125 74 0.13817800828269952 49 647 26 2696
27502 -0.81581285119264824 0.40061336200161179 1.1555677322305002 130 84 74 0.35434966699370163 50 290 51 891
27503 -0.42106938137755029 0.84510064220841652 0.83569061791073018 170 150 162 1.0813315581573466 50 1305 26 2705
73011 4.2057794046706718 4.2680244129068825 -1.8050836196305264 85 49 23 1.1629206128626353 97 376 9 243 90 302
27504 1.4918817212310949 1.6840690448327977 3.3981873228634387 148 96 46 1.6335863374952295 49 5008 67 2721 26 2716 52 2441 38 1905 27 1066 45 2757 23 1216 97 617
27505 -0.72978213588640684 0.55717049947785469 1.1707499446884835 114 74 75 0.22263147018470564 67 5048 26 2717 19 3553
27506 -0.54165375192092413 2.8682656068013421 1.1299964421464022 143 90 51 0.28550968298373369 67 4888 26 2723 10 5748 38 5538
27507 -0.87937367674722333 2.1623177671194735 2.536205236647465 149 98 53 1.8088967988619242 67 5302 26 2729 19 3370
56505 -0.99104175512788539 2.0717627260659461 2.7176086994651656 126 102 56 1.3712646598167828 29 2642 61 2977 40 2332 42 846 76 3498 11 2327 99 1171 24 1331
27508 16.108391587923727 5.1982658549522061 0.07897571430570792 67 202 255 1.0875581639281193 26 2735 10 3820 45 4815 48 2619 23 2152 13 3823
27509 16.146193536484272 5.0822170779382034 -0.56606656591662807 108 198 233 1.2508146823901762 48 2606 26 2737 10 3777 45 4788 23 1775 13 3610
64719 -2.6483939034359976 3.3490909009415022 0.14604451353212908 0 0 0 1.0101778735921179 14 4330 101 4194
27510 -0.45915241365403253 0.83746772075686415 0.93967295368090997 155 124 130 1.6964444660447699 67 3354 26 2740
27511 -0.48811926656313726 2.7524355166972478 1.3485955964147796 153 96 49 0.12770853277983132 67 4855 26 2754 38 5930
54988 0.62042143661506033 2.6138736827374842 1.5909879091723096 182 153 119 0.45231629325749645 53 5858 29 3553 40 3589
27513 1.9900653615625428 1.7837588003125977 1.6489369807515166 183 129 83 0.0093146340627269821 22 2776 26 2764
54998 1.0715153842668654 2.9142612244256139 0.98355561440931638 166 127 99 0.020329425861656619 46 4421 29 3610
27514 -1.042922929217448 1.9534987619350721 4.1518076872121279 170 131 98 0.92512064978709274 67 2032 26 2768
27515 1.1419945191598799 3.6667548622179549 -0.47363878875452636 198 149 108 0.6747659376430778 36 3886 26 2778 38 6116
55427 0.94575033006393994 2.7786247708443206 1.2537338332992309 149 112 84 0.53221884362518423 46 4524 29 7326 11 8108
27518 -0.016517966481723014 1.9762611431313772 2.8463934188847935 139 93 59 0.52077259604550918 67 5420 26 2806
55936 0.86004690228737712 2.8469915641651595 1.1147825390292145 172 153 128 1.5067540661954448 53 4443 60 2756 40 2545 46 4319
27519 -0.45545732361066449 1.7044961219749153 1.8889649059722213 140 86 41 0.076658827676688787 50 1543 26 2809
55935 0.76211357033573668 2.7036030339758796 1.4245081396429418 135 105 73 2.0564258719898447 46 2650 60 2755 40 2558 99 1114
27520 0.34322142377899928 2.8042709706711006 1.2388662803638735 139 89 40 1.3173172424968629 50 1263 26 2812 91 702
27521 -0.42528715500095776 1.434827788775437 3.9950752713868871 161 110 64 1.6132588512422037 67 3840 26 2819
39127 -0.15332529477281109 2.9862527083312247 0.88048829779569404 146 109 64 1.1476148131045305 43 2192 17 2071 12 3000 18 2391
27522 -0.94472370790821125 1.2385818130314781 1.71647519194152 99 34 27 0.60607908749250816 67 4602 26 2820 10 4203 52 3501
27524 0.35746358647339366 3.0810664397319618 0.67592123817786709 182 136 99 0.79381694901711675 67 3173 26 2825 10 5480 38 4262 52 4569
27527 0.23050005305100854 2.995114240757148 0.85032480159892354 152 95 64 1.8933331403690028 67 5465 26 2841 38 6306 45 7186
65075 -2.7833291868106129 2.9329275794674996 1.0221623448281283 0 0 0 0.94663021680287096 101 535 43 692 17 541
27528 0.24738655559685208 3.0394877446846955 0.75383025806212101 178 135 91 0.22166835934144138 67 4705 26 2842 10 8316
27530 -0.4412775618057545 1.7772992180217277 3.2748969766016742 132 84 48 0.53649120404569128 67 6211 26 2855
56028 -0.59213294134514405 3.1972011831283194 1.264810181341858 127 115 108 2.1073913377293687 58 6508 60 3344
27531 0.089309947716638804 2.8650435267512999 1.1135955948034226 148 96 53 1.355102833389771 36 2120 26 2856 19 6758 10 4317
27532 -0.91828690377515421 1.4619918743767197 1.6965489177340003 93 33 23 0.63521478213543769 49 4242 26 2861 10 8244 67 5405
27534 0.051964101803882813 2.9451459607002555 0.96188030985111272 143 99 59 0.75117903385933071 67 2943 26 2869 38 5418 52 4010
27535 -0.91581717870419488 1.5274425267814302 1.7246337970845553 108 49 41 0.39201030346118076 67 4650 26 2874 10 5519
61496 -1.7008885673135312 2.0415970444100209 2.7987173886495373 80 49 18 0.80482975267562862 61 5765 76 4762 11 3231 4 4158
27537 0.0070883707562684872 2.9750530330275691 0.88173324156678012 160 111 65 0.9647170295225318 67 4750 26 2885 10 8485
27539 -0.66146035149572657 1.9538975537030947 1.6547355178978356 128 104 107 0.89062931593634098 67 4701 26 2891
27540 -0.66748748531322266 1.9677280843251213 1.6621298353348113 85 37 34 0.30422582869699233 67 2909 19 3306
27542 -0.74162599652859695 1.9215860303955754 1.7128420208335831 89 40 35 1.1996488895169448 67 4722 26 2903 19 6770 52 6542
27543 -0.16083433422740354 2.8455510256125809 1.1504334985388058 147 95 47 0.90882575786911357 67 5550 26 2905 10 5633 38 5459 52 4682 23 3015
27550 -0.22567256193793162 2.9047820947638976 1.037602728828281 176 132 93 1.4837055005106099 67 4799 26 2927 38 4363 52 5628
34305 37.339768648378303 6.1073651239867841 -14.825035551862419 106 104 105 0.6356416426281476 52 2893 45 3519 10 2928 13 4486
27551 -0.72734449387352229 1.9480221095489432 2.9985111142993981 153 108 69 0.98963454559875663 26 2938 77 2392 10 3291
27552 -0.376035753428693 2.7510106575887483 1.3535389389657326 145 92 46 1.2343099460764435 67 3016 26 2942 10 5689 38 5525 52 4091 23 2997
27554 -0.35197290571806367 2.8437233191247642 1.1709801055074855 176 132 95 0.96079583909641453 67 4832 38 4395 52 4076 23 2261
27555 -0.42791317696548614 3.0728034597241809 0.71940350752752269 147 93 47 0.81237915964021346 67 4882 26 2991 10 8768 38 5480
39443 -8.0515154448627566 0.19757690067400233 4.4014409069008575 47 65 51 2.3283105751301107 43 3143 17 5684
27556 -0.4422148042656936 3.0654089129014426 0.72510816471692974 177 132 99 0.57082138532484772 67 4883 26 2996 52 6569 38 5483
27557 -0.44928571113989618 3.0666326683061578 0.73197401414357244 149 96 50 0.70059995765946581 67 4886 26 2999 52 4720 38 6323
27558 -0.591442818649076 2.8631062975215658 1.1293434328427145 146 96 47 1.5114271136978885 67 4908 26 3011 10 8907 52 4805 38 5555
56040 -2.5507011942140307 3.608611552779057 -0.21684742236731377 114 69 40 0.53027971381968086 46 5753 60 3378
27559 -1.0171352890651579 1.9627407857917702 2.9063415032167854 177 142 110 0.19422549146937573 67 5898 26 3014
27560 -0.65504272687878828 2.806667380134773 1.2493682296864177 178 134 89 1.2910829126358274 67 5919 26 3022 10 8968
27561 -0.61529620287040232 2.8975674953130559 1.0754330276447872 139 90 47 1.6248769601883233 67 4929 26 3025 38 6497
27563 -0.7940371037920031 2.5799799303373794 1.7068969035574539 133 80 40 0.71739016504039954 67 5210 26 3035 19 4908
40177 -16.784022314380866 0.019052698297715352 17.173889302270933 228 218 193 2.7367816252907531 18 1113 12 5781
27564 -0.58912098147323255 3.0387036127862115 0.77838337355217679 155 99 54 1.4153514543759056 67 4940 26 3040 52 6596 38 6480
27565 -0.70333894242477246 2.8365937958529703 1.1863141135805344 138 84 40 0.77729284577997981 67 6583 26 3049 10 9002 52 6674 38 5586
27566 -1.1493953673698629 1.8958340005439001 3.0354540386902746 147 105 64 0.22319606866168298 26 3053 10 6068
27570 -0.72901956503550003 2.9019901042954448 1.0668510517285879 172 128 93 0.95700705370475769 67 4970 26 3073 10 5814 38 5578
27574 -0.71889361398948037 3.0588840950851326 0.74410547292500029 172 126 92 0.55972758001517597 67 4996 26 3092 10 9000
74228 -1.9539064620356337 2.2537908193958467 2.3709691548961875 150 129 86 0.73114108433179936 9 1361 90 2137 24 1444
27575 -1.2448666669228432 2.0094306152127408 2.9091619252449594 174 139 101 2.2603139041709635 67 3885 26 3103 10 6124
56436 -1.1879297952875645 2.1116286940254501 2.6374688713638839 134 113 49 1.1556834152719737 46 2436 61 2321 76 2380 81 833 94 1994
27577 1.195352758919191 1.0882207856125572 1.2313698597324219 144 96 84 1.4036169007677706 49 2483 26 3114
27579 1.1727345965164067 1.2478516411193894 1.4103842970704246 195 142 105 0.881442983353668 49 1184 26 3120
63015 -0.91247011634364572 1.4045254854717844 1.6195012754209395 80 49 34 1.7742574013737942 29 6366 54 3993
27580 -0.3013075056725627 1.4465888695069833 1.1070141720198214 128 77 74 1.2071783040729023 36 2797 26 3132
56000 1.1985760828221923 2.5698899950539453 1.6640474712544555 170 153 123 0.96159078349948712 53 6338 60 3146 40 4660
27583 -1.2576550788128906 1.6162458814837488 3.6118722446937466 145 96 47 0.051141856764152796 26 3141 10 6127
55999 1.2093972373766309 2.5310809651938126 1.7372587517486358 150 120 91 1.2064867619067727 53 5478 60 3134 40 3764 86 8576
27584 35.089557772225092 -4.9888411867693572 25.499696908063839 93 99 95 0.61632805311967065 22 1473 26 3144
27588 16.451205290716217 5.517501432725231 1.7836978436794533 143 164 201 1.0178497531492909 49 3376 26 3200 27 1782
63666 -0.33880736887307783 2.4675569491243068 1.6409652268444161 200 123 65 1.2835223690339972 4 5327 94 938
27941 0.030592814033828079 0.38289916140928426 0.32363475274020287 115 78 26 1.1707086510809255 36 1361 19 1057
27591 -0.52821665697890152 0.06534981300439599 0.93214089273609146 95 66 48 0.29650395383672634 22 3013 26 3258
27950 3.7797219726800351 3.1730412655147342 0.3643063962542441 80 46 0 0.76330908131285224 22 882 19 1143
27593 -0.82179969126599761 -0.072033381662796839 0.97079374533715179 128 91 83 1.5726000521189822 26 3265 10 7290 19 5240 52 5589 27 2400 67 5684 38 4183
27595 -0.20397890625963172 0.43336345266749327 0.52329370335215053 139 73 57 0.92345757628647518 67 4184 26 3270 21 6766 52 4997
27949 4.5764715329480081 3.5431292210847301 -0.34619771999074783 89 60 28 0.73673295425355589 48 1349 19 1135
27599 -0.019777401504419735 0.59708270903590588 0.82138093637067588 134 99 93 0.80978813876008537 67 4291 26 3303 52 3702
27958 -0.18792926390338219 1.5605695662576964 1.0685147926777827 190 145 147 0.99250451950152407 26 1235 19 1255 10 2488 15 1481 21 1666
27600 1.9137700776608666 1.5547222427773248 1.3800576968983915 88 42 31 0.025537626552235022 48 1954 26 3305
61560 1.0855374970400908 2.8882397981622239 1.0683097557572798 173 121 61 1.6725748591967031 76 6658 11 4774
27601 4.2529404425486073 3.6129032384642299 -0.50451188510665312 208 159 113 1.1960787430356554 48 3266 67 5151 26 3321 10 7791 38 2373
27604 0.3453639557911416 1.0195624898703348 0.8806300594340708 188 132 85 1.9938605578166286 49 2496 26 3362
28971 -1.5614653191404619 2.0238012963311078 2.8392712745538251 152 98 52 1.2279186434874088 49 1306 88 926 91 506
27605 -0.60737734259995912 0.37154096204911963 0.97731835647570109 106 55 43 0.47518471016950353 67 3430 26 3366
27957 -0.70026364427137366 0.52719607569189697 1.1355482167805511 204 146 142 0.88261318210293749 26 787 19 1225
39042 0.90274969125265381 2.8478143576217905 1.1219144178343914 113 64 40 0.79058859220512057 43 2237 17 1532 12 3393
27607 6.5478141716637301 4.106001705609617 5.124081140635786 104 45 39 2.2284214739695494 22 1187 26 3395
27608 -0.96494569579181522 0.17235262787188285 1.1548024127758441 115 57 45 1.3414955298876063 26 3402 10 4741 22 3491 52 5080
56899 -2.3604824970664695 1.9846564666775204 2.9317556330886423 119 93 31 0.70494063583905686 29 4899 61 8847 11 3112 4 3663 76 4643
27966 -1.7528461405324958 2.0260359602437905 2.815937412365884 108 80 43 1.4314211724433719 63 3346 19 1354 91 613
27611 0.5567466446963204 1.2239305689382263 1.4230997584346678 205 155 102 0.84280549032546748 22 3346 26 3410
37180 16.551238075929916 15.784664126982154 -37.998410910231378 69 84 53 1.6916156027656528 34 2164 13 3360 79 2422
27614 2.0393615017066353 3.0022914782991719 0.79765960735946306 187 138 82 0.4012592439126787 67 3238 26 3456 10 5211
27965 0.53379826241627837 3.8448372495014391 -0.81780912882284251 87 44 2 1.4832834401315131 19 1341 88 929 10 4229 52 3247 38 2500 27 901 23 1852 45 3916 26 1789
27615 2.7953380513594248 2.7247214945282532 4.2350639576209872 167 123 88 0.16430894835214349 48 4290 26 3458
65035 -5.4046755293406079 1.0558765452161814 3.1979750545107608 0 0 0 0.093082363762872322 17 5767 82 8056
27616 1.8289068321121924 2.8741292113255534 1.0382139571170736 197 155 115 0.78080495534902994 49 4226 67 5270 26 3466 19 3461
27617 -0.16111724023048915 1.2946676229166583 0.79016818921943999 74 42 39 0.42300917922411951 67 3298 26 3479
27618 -0.1745430937506898 1.3172515777588605 0.8296206708689694 83 45 42 1.090664194345661 67 5198 26 3486 10 7985
27620 0.97642566109087925 1.7137665174514367 3.3572958843913367 187 145 101 1.1435111351717635 67 4546 26 3496 52 2474
50703 -8.4897715703583003 0.51349837848005331 5.475619244877044 80 110 54 0.19158317048150436 53 1064 60 916
27621 -0.83267491531721738 0.74744904044645188 1.3445297486482866 112 72 72 2.0644908988100545 67 4455 26 3525 52 4387
27623 -0.78579443266175608 0.89745438467169258 1.2566592254252411 173 126 85 1.2573923059664966 22 889 26 3544
56334 1.2460721991325341 2.7959481637685095 1.2149073657943537 156 137 105 1.6134454038376691 60 1454 40 919 53 1616 76 1433 61 1195
27625 1.1040265497804533 2.9042194636075926 0.90518475802497322 184 139 97 1.2327504397224995 67 4592 26 3561
27627 0.9675905444929972 3.0429128709163127 0.73291767308775024 154 104 51 0.57080660115510851 67 5379 26 3585 10 6455 38 6158 52 4500
27630 -0.23941183667660768 0.78842133475673393 1.141969602512511 185 138 89 0.7564488038178343 22 3381 26 3628
39002 -1.0451227063157447 1.6469084666278839 3.561019729918617 139 107 82 1.6720482297789672 8 1406 20 1237 14 927 46 787 40 721 11 371 101 689 1 1707 85 2476 53 2069 29 646 94 425 59 1780 42 336 12 2765 55 1476 58 1307 56 384 60 1368 76 605 86 1206 54 458 99 528 4 394 84 2202 33 6400 44 1482 61 330
27631 -0.90452514019500707 2.6173129230639436 1.8348849112085976 147 100 56 0.96126917622317054 67 6024 26 3695
40108 -0.1640292169545953 9.6771864902809579 20.546622585595419 140 69 15 0.10145958517878451 43 3058 12 9272
27633 1.0958897697699179 1.2721121380865772 4.3027368398292438 149 113 90 2.4476814878981621 67 7286 26 3721
27634 -0.74768717811304752 0.6176972386604932 1.1807187495827289 102 65 72 1.3533959789244951 67 5086 26 3722 51 907
27635 -0.77376296318518001 0.63007495145803649 1.2959490009176184 108 74 81 0.24505491096586307 50 1622 26 3744
27638 16.490826501175899 4.9296698458644777 -1.6053972166117922 146 181 166 1.1531397768487195 67 5723 26 3787
27640 16.228273702323257 4.7813533620789395 0.92245109880237863 155 197 237 0.89828275802356039 48 2610 49 2459 26 3794 10 3814 45 3859
27641 -0.3757192399040441 1.5393006922514685 1.3006743547137944 109 66 65 1.3985528239945346 67 7357 26 3813 10 6327 52 6340
27642 -0.055937340747305449 1.3383482447167205 1.2815147097709925 193 144 96 1.1205728159163622 48 3549 26 3846
39094 -12.966391421139312 4.7826139247211872 6.2525863149322767 24 21 14 1.5070517174783371 17 1836 46 2318 60 2870 43 1958
27643 16.269337353621214 6.9938881813226796 -1.2527312437947027 138 118 101 2.1280682448244224 67 4326 26 3880 13 4850
27644 -0.5191738671795213 -0.080860796381720751 0.63311265955334706 119 69 72 0.65543073988986411 67 5640 26 3894
27645 -0.28230802374177899 1.5717048416299615 1.2161024861234173 64 33 39 0.9466828638478576 36 4563 26 3914 52 4458
27646 0.71546497139713638 0.53186399574750909 1.1959459232426275 53 12 8 0.53033543252922777 22 2063 26 3935
27647 -0.33791407837075843 1.4947682132240852 1.2192949357235141 80 40 38 0.10141982712332516 67 7305 26 3944
27648 -0.790385983616953 0.71855855966382887 1.2338139422033201 137 90 86 0.90885884873784217 67 5171 26 3982 51 1639
27649 -0.84854971675758117 0.91921064367153005 1.3587057178216129 132 79 73 1.2870729788931559 67 5229 26 3998 51 914
27650 1.208396268341396 1.1079018441491764 1.2479497065479801 133 86 71 1.361590836865989 49 2487 26 4010
74821 -2.6732582177235189 3.160751324006748 0.55777677387877789 130 104 79 1.293101335163457 5 8550 24 4815
27652 -0.11284381883741262 1.7371847376705156 0.95728496369629779 146 100 94 0.58704038510013345 67 5280 26 4042 10 6253
55197 0.65843389858956325 2.7920643098649278 1.2663792341415141 165 122 100 2.0526780894563794 46 6246 29 5129 11 4606
27653 -0.79190730210466498 0.75152721120163124 1.2282605196413454 121 70 66 1.4841892285352882 67 7214 26 4057 51 2103
27654 -0.94881479908487232 -0.0057751058764825254 1.1087609247975683 142 105 112 1.1541683139041443 50 1809 26 4069
40264 -0.96334038288277668 0.012690720393285369 1.1049435795682769 97 51 54 1.8531064376185558 26 3339 51 740 50 1759
27655 1.6039195449115933 3.8769634354017373 -0.89987736614861602 179 123 68 0.55726967041468556 67 3131 26 4098
27656 -0.79097611821022173 0.87638252026948305 1.2434326104873217 100 36 34 1.5058697571778399 22 885 26 4103
27657 -0.22516094770266126 1.3593875042914538 0.9403966051206647 76 43 40 1.5064598387706261 67 5219 26 4138 10 8062 52 6221
27660 -0.23281341969614014 1.3662756013929129 0.95911548167494376 77 46 42 1.7986674124752327 36 2807 67 5223 19 5723 26 4157
27661 0.0091574176453077059 0.99191197150929211 0.51831742638846767 72 29 23 1.6024199631364249 50 1608 26 4186 51 849
27662 -0.2641482364702154 1.4619210030978391 3.8880962699405117 183 145 106 1.5114843857641755 67 5421 26 4201 52 5413
27663 -0.18305496013824307 2.1180891712489189 1.2353630390316099 56 28 24 0.14204160499876067 67 5391 26 4205
27664 -0.43497893157768824 1.4157945270653958 3.9859828160824922 183 145 106 0.90817578532119059 67 5448 52 4277 38 5799
51177 0.28170731492715634 2.8557216958301401 1.7249374461611551 164 127 85 1.2007461937468167 55 3343 53 4339
27665 -0.18272997947614944 1.9339218755842256 2.9598878257735022 175 138 101 0.78201121459644041 67 5451 26 4219 52 4802 77 3700
27666 -0.24587561100713934 1.9807204798134694 2.9120337880542273 160 118 83 1.7019974600063024 67 7560 26 4235
27667 -0.23506819790291303 2.0130916444171816 2.8708546182277339 164 128 96 2.0939836244270715 67 5470 26 4236
27668 -0.36416673980979802 2.2677595482677799 1.5919460541208628 97 48 33 1.7027453801358361 48 2161 26 4263
27669 -0.41116202224737003 1.982988507119515 2.9008882491381174 175 142 110 0.86646703083085419 67 6212 26 4264
54189 0.10540174701623961 0.54870255695260417 0.75596299407096723 82 47 41 0.69031446504862293 58 7922 46 5586 54 2583
27672 -0.21624976344169386 2.6719431236348088 1.4903287982586915 149 106 73 0.22851725003425241 67 6215 26 4286
27673 -0.73224811840339632 1.9176709319094836 1.7072916401764517 0 0 0 0.86160606040291521 67 2918 26 4288 48 2151 49 2629
27674 -0.82350157193695606 1.4612653642351774 3.9452783405301997 152 104 58 0.56913151257805983 26 4296 10 5914
63978 0.016342977819210239 2.0414163228216493 2.7590671867502743 99 84 55 0.22842511037847918 86 8194 81 2071
27677 -0.87433841276910973 1.8644417163682987 3.0681910331663795 153 106 62 0.83225806156354887 67 5170 26 4353
27684 -0.87172306026807655 2.1181307996536662 2.5984836868785792 141 91 39 0.47345370544282034 67 7847 26 4394
27687 -0.49435347948474312 3.010743033792687 0.83990873510602859 142 91 46 0.43584387068581543 67 5138 26 4408 10 8820
74857 -2.9628762479138242 2.5712775230353451 1.8228717683804563 118 96 57 0.3971305204759652 90 497 78 361
27688 -0.5027407608237634 3.0452252865479457 0.78105413976362914 158 109 69 0.11473257274624898 26 4423 10 8826
27689 -1.0585718739982508 1.8799569555523903 3.1061321146534739 149 104 58 0.22773955124674272 26 4427 10 6028
27692 -0.62484525465006413 3.0453179776956438 0.77258547491792684 179 133 98 1.2274667926520708 67 5965 26 4468 10 8919 38 6484
51077 -0.95543133727625906 2.1955953526056264 2.4526078242028104 177 147 111 0.69514956859966137 53 3508 76 1657 55 1740
30418 2.7020488182792044 4.3119995299685403 -1.8483807677013606 173 135 96 1.7478117274264517 15 7500 41 4463
27696 -0.91884121264649621 2.629125479375563 1.5883138361909053 178 136 98 0.41964791048879213 67 6013 26 4510
27697 -0.97443839421361389 2.5718748298489422 1.6963109308842348 170 121 81 0.060188819053298988 67 6029 26 4519
27699 -0.50596184999113181 -0.10754682138716498 0.64534722833210934 162 125 132 1.1484108174483112 67 6414 26 4540
56185 -1.8398499927722951 4.8171755327999541 -0.14732481312496287 169 132 117 2.341063881296531 46 5062 60 505
27700 0.32586632623653705 0.97276187247945112 0.83496732962367981 175 124 78 1.1629938772361934 49 2486 26 4546
27703 -0.87629503575115986 0.95406447497594182 1.4325492987767545 84 26 22 0.25138352331107994 67 4504 26 4569 10 9191
27706 -0.53346197775058246 2.9732169088997473 0.91499761637523591 144 89 62 1.2495195467977829 67 5897 26 4593 10 5743 38 6328 23 3891
27707 -0.97852122697131994 1.793061443461949 3.2643933848368034 143 100 57 0.87530919251017791 67 7818 26 4622
27708 -0.92072696507713703 1.9382303292749257 2.9862896910886447 175 136 95 0.0035458871983123016 26 4627 52 5459
27712 -1.8729079830277455 0.77589022840303357 0.45348186181560024 155 108 57 0.034871858611231168 49 649 26 4672
27713 -1.033576645303417 1.9160597703121074 3.0111887449738388 174 136 100 0.44871074744082118 67 6666 26 4681
27714 -0.60683460906932363 2.8755101503470732 1.1155195709733496 176 130 94 1.7733653543136108 67 6689 26 4692 52 4813 38 4432
27715 -0.6150055302601718 2.8719658708647668 1.120773303454845 146 95 48 0.75002259728176146 67 6693 26 4693 38 6502 52 6641
55768 0.86751422297690384 2.2708822404931155 2.2634715550032753 179 154 113 1.5206502771377273 60 1515 40 1974 76 827 86 2576 53 2771
27716 -0.61071554548086882 2.893781192841983 1.0673567842370091 172 128 91 1.6362125130185743 67 4923 26 4695 52 4807 38 5551
40253 -0.77512897487074239 2.3484739711279929 2.2960920113260492 0 0 0 0.34843894184232416 26 1855 67 2572
27718 -0.66702659169413714 2.8610961226404323 1.1511202509488514 177 132 97 0.10636589444759144 49 5332 26 4712
27719 -1.0149383987932101 2.353479464406429 2.394521216951067 173 128 86 0.41404867941538748 50 1290 26 4777
40199 -0.70988027165615419 2.4918926126279515 1.8400764397043659 118 74 49 0.56261130749735844 91 319 51 194
27720 -1.3955254471467446 1.7021253613996479 2.8510107758605638 171 137 100 0.85958475989364014 26 4808 10 6074
27721 -0.99749423601085729 2.4684180832111098 3.5734162731665555 167 128 97 1.2208180615215967 67 4033 26 4841
56732 -0.20262919920751349 1.6367718095799537 1.5844685176184774 92 83 84 0.6446196385373002 29 6523 61 5649
27723 -0.18778406623617602 1.3388587553375852 0.87692226181754718 0 0 0 1.5728857985183631 36 4093 67 7235 26 4896
27724 32.37881581330236 -3.0471030731588375 22.300143427773737 110 123 140 1.1542727933875094 22 2862 26 4919 10 5036
27735 -0.25586544068477024 1.9353409183523456 2.9616260912153654 143 100 64 1.6448556286796328 67 7552 26 4963 10 8702
40943 0.24937141224827317 1.701644076819113 3.4190398620163371 231 196 130 0.6294090545809532 12 3402 14 865 8 2331
27738 -0.91110529215838043 1.4651980904303441 1.6925454786593763 129 78 64 1.1614633591780306 48 4235 26 4989 67 6478 10 8237 52 6462
56806 -0.8145909866492842 1.4351423627140178 3.9813819023574335 144 127 86 0.32517859935562277 29 6961 61 7033 76 8048
27741 -0.67333895030534363 1.947113323576082 1.6743598873044681 94 57 63 0.94440886657617773 67 7559 26 5017 19 6757
27743 16.087250114174534 6.2699948386207565 -0.086414207844847615 102 138 181 1.3927529541866008 48 3325 26 5043 10 4648 52 5983 45 6732 27 1785 23 2606 13 7072
27744 -0.75002125751073023 1.792441779545938 3.3088985497317447 165 124 92 0.27956895833395246 26 5061 10 9129
27745 -0.51786987358772363 -0.10147483678045842 0.56001734121234925 113 68 70 0.79783789628898705 50 1811 36 3854
27746 -0.75391319251936706 2.3783092184601609 2.0717850783462675 151 109 71 0.50347105133446801 36 3520 26 5148 10 5839
27750 -0.2221129628703738 0.3821366765612208 0.54929053806707517 85 22 13 0.81970195287800707 67 5716 26 5181 21 6738
61948 -2.7505366716192658 2.3411687882337229 2.2288162639313156 91 67 32 0.58784500851492938 29 1859 4 1793 61 3128 94 2853
27751 -0.090294254504771077 0.4721970443310165 0.66779777637716708 134 82 71 1.8394135217318179 67 3477 26 5209 52 5020
27752 -0.43898384769130333 0.28846577830568099 0.65996994648903817 100 54 39 0.2864260383404279 50 842 26 5210
27753 -0.86710134081712442 -0.093045226621803645 1.2306955344855799 130 109 110 0.45233044945606882 22 2642 26 5231
27754 -0.94388347213894808 1.3219471638228384 1.6712562706815413 98 35 24 0.35339621835479801 67 5382 10 8129
27755 -0.30336986541623923 1.9293620697431562 3.0416618172166854 176 136 100 1.9673067555188113 67 7567 26 5249
27756 0.47348610360231558 3.6781958467856692 -0.51478748864416413 147 87 37 0.76896137961452471 67 5487 26 5258
27757 -0.94977079254507912 1.3902323205303062 1.8229261220331567 119 67 54 0.30752282888939314 67 4636 26 5259 52 6482
55802 -0.59445323201125277 1.0793997556854535 1.807255061617409 120 100 101 0.77412064806784997 29 608 46 1358 60 1676 86 1440
27758 -0.88024679828568075 1.6124432552997263 1.7145935999654414 93 36 23 0.59886298846266039 36 4035 67 7516
27759 -0.87566369378733167 1.632317862602676 1.7151748033479124 97 44 30 0.098545281570184107 67 7520 26 5291
27760 -0.71927337092049948 1.9336239312271184 1.6509217237092024 81 37 42 0.069270821102507318 67 2911 77 2699
27761 -0.70000219632858041 1.9472359184339916 1.7007690719113853 152 133 139 0.41773989496931974 36 3502 26 5322
27764 -0.50259918274372983 2.1078547370983087 2.6583175175907696 143 92 46 0.4630224221317884 67 5549 26 5413
27765 2.5514399223914248 1.3720491057082154 4.227282718570188 186 170 165 1.9415232139733845 67 7224 26 5449
27766 -0.43135262899402776 0.63336648227914394 0.6579085903580254 70 34 28 1.4517569577794991 48 4102 26 5497
27769 -0.95623771450053252 0.19036392584506046 1.1225906782637478 77 31 24 0.94890356731816972 67 6961 26 5539 52 6037 10 7631
53718 -0.17688919931888689 0.73356940865873932 1.0591833556919759 93 51 50 0.15035291245583654 55 6789 46 5675
27770 -0.31785615827263441 0.7670657401222114 0.85830350927267451 182 132 89 0.43021708996070396 26 5560 51 709
27771 -0.28323344138067208 0.86329525133430318 0.65858487921143605 142 85 75 0.10140035202381734 67 7047 26 5565
27772 -0.9390623994792926 0.2401884397113182 1.2009004941327597 191 151 135 0.98078998342772339 67 5863 26 5570
27773 0.043812782711899749 1.1816794815057703 0.54482818472467476 183 127 86 1.9237182303832521 22 1199 26 5583
27774 -0.29690523723537693 0.88629404907309706 0.75726134792082556 150 113 121 0.45055517771348264 67 7085 26 5589
56704 -1.9796149905310945 2.2667406099065119 2.3619810392744967 169 150 107 0.70782952909393837 29 4909 61 5322 11 3647
27775 -0.82674505404330401 0.34898705101889366 1.2551186968366299 160 111 71 1.9711732815004623 67 4338 26 5592
56703 -2.8936602438591184 2.3659057041193412 2.1756312805756184 143 132 78 0.5209477813430492 29 5489 4 2674 61 5285 94 5004
27776 -0.092232560478943029 1.2060754781702669 0.63105959666054712 113 54 46 0.35063196609762459 48 3845 26 5646
27777 -0.14275835546704008 1.2729754353377092 0.7355297630099854 142 103 95 0.79641860336165626 22 1966 36 3447 26 5717 67 5182
55080 -1.3299465930868759 1.6459155869131405 3.5718629562445385 159 133 92 0.86729700763316298 29 4291 4 2884 94 5973 46 6057 61 4858
27779 -0.17692762443977239 3.060678153779834 0.73618376798391083 157 106 59 0.60578681371609289 49 3662 26 5743
27782 -0.17858956864218214 1.3116842919788156 0.81905930103824387 102 54 40 0.27095729404952701 26 5774 41 2976
27783 -0.23512177678285598 1.361784783529195 0.93824479850903797 156 108 94 1.2239376928360972 50 1643 26 5821
27784 -0.82905952582889897 0.73104761627970927 1.3381488965322277 124 91 92 0.62718722676373762 67 6458 26 5830 52 6215 27 2232
27785 -0.23878979966621244 1.4095170519439637 1.005710625041456 0 0 0 1.6369868393192357 36 4084 67 7262
56641 -17.260615977214634 9.2583736093152034 5.3785019942643153 115 129 118 0.0065840727913142882 46 4931 61 4561
27786 -0.16404136189819965 1.5707769558709184 1.0675119470171139 82 51 59 1.6704838678953295 36 3469 26 5868
56796 -2.1531315381481888 4.1267830114092199 2.8244078466460936 101 78 37 1.4297745797330705 46 4055 61 6755
27787 1.6274243993779132 3.7814431372498487 -0.70560222739963674 176 123 70 1.272242910164487 67 1479 10 2498 27 918
27790 1.0146433802210029 2.8249398434503878 1.0403023087253476 183 136 90 1.4044673440980864 67 7429 26 5886
27791 -0.87870189978683377 0.84231588710174532 1.4785721875547471 152 123 122 0.20111920865352956 67 7255 26 5896
27793 -0.19209365437199186 1.5902817474565605 1.5352833657213667 73 44 29 2.1049457648995018 67 3197 26 5930
27795 -0.21879215912207023 1.7011012607842644 1.6773312941242822 80 42 20 2.0741239198623624 50 1937 26 5981
27796 -0.85385739276224526 1.0673556955720127 1.4302887359833334 158 113 71 0.82177562049035058 48 2340 26 5984
27797 -0.87826303084654067 1.0892079598798303 1.4568120175598676 113 36 17 0.1084561419030729 48 3884 26 6001
27798 -0.385565922410809 1.6374029221113229 1.6737454461040158 167 125 73 0.13526040132088962 67 407 26 6009
27799 -0.98064438559716516 1.0190342166558914 1.5865778803638724 93 47 49 2.1436333068689333 48 4312 26 6020
56651 -2.0368633408807346 2.0780138413741671 2.7369381509723194 165 146 103 1.24876295839276 29 4212 46 5011 76 4688 11 3699 4 3676 61 4623
27804 -1.0838341384792745 1.4263440041416386 4.0031251654233655 146 103 61 0.16087502023369987 26 6066 10 6795
27806 -0.3378718995254697 1.9837538060279984 2.8782829872043245 177 135 103 1.4989288594812726 67 7576 26 6104 52 6677 77 3821
27807 -0.91329208066498535 1.372806602812545 1.6511793555359731 123 66 55 0.88355464240658232 48 4655 26 6107
27809 0.012420633063772285 1.7456487146790249 0.95924376773703823 184 129 87 0.97282228122558045 26 6120 49 5061
27811 0.81240254439898696 1.2441893112929718 4.2923042447359849 126 106 81 1.0836336357944647 22 3334 26 6143 19 5202 67 7328
27813 4.1209371702460587 3.6727581133077214 2.2195555926165378 80 36 27 1.2401642090863514 67 6186 26 6153
27814 -0.075434418040191645 1.4393824777100086 0.86541916992961387 181 130 96 0.96025446935119763 67 3279 26 6169
27816 -0.43857351980489107 3.0489918887773242 0.73059890541278272 177 128 95 0.89381524437763882 67 7850 26 6198
27817 1.8671934210558918 2.989141281636976 0.84445047545885765 98 68 38 1.9416065094279511 22 153 36 120 50 208 26 324 49 323 67 413 30 107 25 107 91 177 10 583 48 344
27818 1.6068633827947967 2.8459171718762293 1.100626764854626 143 94 46 1.3916754765325119 49 2601 48 2021 22 1260 36 1162 63 2420 92 1424 25 1095 50 1075 67 3204 30 488 26 2105 64 954 75 909 28 792 47 1295 32 926 69 1008 98 1151 100 847 96 1284 19 2018 10 4115
27819 -0.45879155608083894 2.9079810996196822 1.5939868357418141 164 114 74 2.393512496297598 67 4 26 6
27820 -0.11426575007897628 2.8694699567187207 1.3128357171314975 166 118 76 1.1985767235981717 67 24 26 26
27822 -0.48779912726604729 1.4520452743459908 2.4749891565698534 150 103 61 1.3143417116556031 50 787 26 69
27824 -0.8369400730223171 2.2686461328680276 2.1492634461093187 152 110 70 0.19051169286247888 36 115 26 101
27825 -0.85591516868291828 1.5933026559256378 2.1063212886757241 160 117 82 0.16263263952582308 22 763 26 123
63781 -14.922298580761641 5.4270611277133396 5.1125785365274252 64 46 31 1.3210579878955109 76 888 81 420
27826 15.935838547700589 3.5458043113747277 -1.6834554113966969 188 249 169 1.4691351137890836 95 109 26 135 21 183 10 300 45 266 13 253
27827 16.111272532179992 2.9271145320564598 -0.39524377767947821 207 233 229 0.60684936570344694 95 339 26 243 10 498
27830 2.8811271741541096 3.5883259449304616 -0.46424513127568956 210 159 106 0.77749545653096919 67 570 26 343
27832 1.75728079417045 3.4208713892042488 -0.045291730094831013 201 146 90 0.84241405407998493 67 558 26 413 10 1067 52 730 38 485 27 493 77 949
27834 18.155718592958234 2.6389053554350466 0.19908024137545804 172 209 205 1.2247878402192676 50 229 26 439 10 770
27839 -0.86885487574612141 1.3838538700656391 1.9823969166786997 159 114 75 3.1297275713930177 50 975 26 670
56102 1.3654970413573777 3.3589422993013209 0.084627434547200966 178 159 134 0.60993024696259923 60 4070 76 6507
27841 -0.73890415184753822 0.5418724765687809 1.2273510014870133 136 94 95 1.7084288350020556 67 1186 26 757
27842 0.65298468007464217 3.1868657771202593 6.7479765051648029 163 114 74 1.3659952919777476 67 2008 26 791
27843 -0.39745357738815873 0.94379655580715238 0.46613443491842327 186 138 92 1.9517708904928437 67 4378 26 856
27845 0.64705233302313891 0.9340664709427775 0.40599993483373764 183 131 72 0.0053739314557590505 67 3846 26 896
27849 15.787394337636689 3.6947783278470454 -1.2846404847343234 202 240 243 1.2559372873794847 95 832 26 1008 21 995 10 1226 41 853 15 997 45 1391 13 1369 34 871
30252 -0.57265027989068873 2.2890966114426061 1.7231874083284864 213 121 102 0.98665655542040687 21 1882 10 5671 15 2551
27854 -0.88612128609340557 1.5079449377502867 2.0149413486577981 150 111 68 1.0732067980868485 50 586 26 1298
63352 1.2587030615373038 3.2256157956696172 0.93765960672421556 209 108 27 2.2137827561305632 4 3017 94 2089
27857 16.053603795487504 4.7667012007033067 -1.4620813629319571 185 206 183 0.42903678147775121 26 1482 10 3070 27 1041 23 1226 13 2814
30256 -0.87463293270852194 1.9619826745644617 1.9903365534001671 242 139 115 1.8960913526627046 21 3990 10 5717 15 2522
27859 -0.06788123040803172 1.0148616845747289 0.48074578174581895 88 44 40 1.3577307654055637 67 1180 26 1672
37418 15.750192441030201 3.6057030149769895 -0.85827913983311799 99 141 75 2.2224843874069764 95 4482 13 6821
27860 0.067996638772331947 1.2989084697282069 0.65242687691139978 126 66 44 2.5027956110968539 67 5160 26 1694
30251 -0.22167014060828952 1.188474436042001 4.4154557759186366 112 74 47 1.0567636269107448 67 7477 52 4502
27862 -0.65552717155222173 0.67113091153136772 1.2736306936691923 123 82 86 0.417176003945258 50 1875 26 1720
27866 10.67439879464712 2.1653242681543312 -0.18432380873248608 95 142 122 0.57296816924984983 49 3217 26 2157
38460 0.75862511093952512 2.8503255981364033 1.1186924377517216 112 84 47 1.0573005028723546 65 1499 43 1155 17 982 12 1630
27870 -0.88110465672253968 0.9517910648863821 1.4419701022080373 120 69 64 0.8852171913585769 67 3247 26 2291 19 3738
27872 -0.90620505553745689 0.23797871715154362 1.2047183803758603 111 59 48 0.62129733642416962 22 2712 26 2680
27873 -0.86897912191455551 1.6024363990120587 2.0495346628622677 110 64 44 1.9090943361568897 48 3404 26 2890
27875 15.862995423057635 3.2007480545147553 -0.35133003073220026 144 139 168 1.8416753403046098 26 3150 21 4980 10 3528 52 3632 41 2359 45 3678 34 3145
27876 -0.18542358024761915 0.43324975054922454 0.46893480519225889 191 164 173 1.9995872057099513 26 3267 52 1989 67 1742
27877 0.0046230747008082105 0.53900993505861849 0.79120218964889677 125 86 70 0.30980041748469983 49 4879 26 3282
56669 -1.7499892671009256 2.8740823617588136 2.8166197286734511 137 108 50 1.6055713217629186 29 3226 61 4798
27878 -0.77026200434360059 0.90225651747490665 1.2568045514773221 170 120 78 1.8414422487202886 67 1375 26 3543
27880 -0.3618512614667399 0.44072731287947559 0.37736251621855249 154 116 127 1.0350940224204268 50 1768 26 3983
27881 -0.89580764826965498 1.5986352012508651 2.025069924940099 143 104 67 0.52652082506602971 22 1301 50 917
27882 -0.45843502271008996 2.3691072640384081 2.5988906632372051 161 116 81 0.23665339316102624 49 2661 26 4326
27885 15.847414461340636 3.3972641005789423 -0.67242472711930446 142 160 152 1.1833251671613632 26 4845 10 4948 21 4990 41 3610
27886 -0.72889749841483131 0.49602922469155131 1.2247382193823098 117 66 68 0.2161684652180893 50 1495 26 4888
49425 0.381370606246413 2.5537005863237874 1.7151832137401346 129 79 33 1.3168749536890503 58 4019 55 3293 53 5753 46 3746 40 3548 29 5110 86 5737
39852 -13.316115570555636 3.1769709166155629 17.6021867065833 171 170 165 0.94782109960956828 18 2941 12 4241 8 3072
27889 -0.24196361685802723 0.16663334747748404 0.37613314507507811 0 0 0 1.3040495602841771 22 3133 48 4022
27890 0.12418974354216211 0.85781552920509319 0.35445804762950828 193 140 89 0.0098586594945769372 48 3765 26 5348
27893 -0.15020158292466754 1.2806845832660436 0.74794319070102822 148 104 95 0.90055332218695605 22 2843 49 4249 26 6213
27898 5.2843624321319762 3.8672397896926314 -1.0990202302986607 51 32 15 1.1712185045757355 26 292 19 175
55661 1.2167968330609036 2.1545772234302683 2.5101074459667712 163 127 95 0.74192742601769468 53 576 60 910
27901 1.9368567547620283 4.0954671171066206 -1.4347336227609837 119 89 39 1.4420838935999978 19 239 38 201 27 271
27903 2.9337283323407215 3.4701305125555186 -0.2273300684557108 108 72 24 1.5984441231735218 19 305 88 430 48 249
27910 -0.70744644235658449 2.4828669567590693 1.8927017600935745 255 209 142 1.2727228209812969 26 355 67 513 10 665 52 769 38 568 45 1570 27 440 13 1500 77 602
27911 0.81911878490273526 3.9223107758973415 -0.98216740757784127 62 29 8 2.2080922020733955 19 414 88 712 52 921 38 494 10 1090 27 500 23 959 45 2549 77 1038 13 1797
27912 -0.76530434354455856 2.4762366203045074 1.8575887171452206 242 195 115 1.503216016507561 50 267 19 415 51 195
27914 5.3557525145325604 3.7438250691318951 -0.89099447706867951 60 42 18 2.25966345028487 26 1110 19 514 10 2358
55889 0.92616814678514914 2.5805033659840659 1.6421667425956876 170 149 120 0.2406880641069909 53 3736 60 2349
27916 1.1427277483387519 4.0153786943771355 -1.1726543644960046 113 80 35 1.2696105272199734 26 656 19 655 88 874 10 1429 52 2194 27 913 45 2636 23 1233 13 2937 97 508 77 2287 9 710
27918 1.3249926361949171 4.0190022310908304 -1.1851389408157182 68 37 9 1.7444450432423757 26 652 19 662 88 706 10 1424 52 907 38 694 27 863 23 951 77 1049 13 1806
